# .PCD v0.7 - Point Cloud Data file format
VERSION 0.7
FIELDS x y z
SIZE 4 4 4
TYPE F F F
COUNT 1 1 1
WIDTH 1519
HEIGHT 1
VIEWPOINT 0 0 0 1 0 0 0
POINTS 1519
DATA ascii
0.069999002 0.0079549998 0.012364
0.069999002 0.0047729998 0.012364
0.069999002 0.011136 0.014636
0.069999002 0.0079549998 0.014636
0.069999002 0.0047729998 0.014636
0.069999002 0.001591 0.014636
0.069999002 0.011136 0.016909
0.069999002 0.0079549998 0.016909
0.069999002 0.0047729998 0.016909
0.069999002 0.001591 0.016909
0.069999002 -0.001591 0.016909
0.069999002 0.011136 0.019182
0.069999002 0.0079549998 0.019182
0.069999002 0.0047729998 0.019182
0.069999002 0.001591 0.019182
0.069999002 -0.001591 0.019182
0.069999002 -0.0047729998 0.019182
0.069999002 0.011136 0.021454999
0.069999002 0.0079549998 0.021454999
0.069999002 0.0047729998 0.021454999
0.069999002 0.001591 0.021454999
0.069999002 -0.001591 0.021454999
0.069999002 -0.0047729998 0.021454999
0.069999002 -0.0079549998 0.021454999
0.069999002 0.011136 0.023727
0.069999002 0.0079549998 0.023727
0.069999002 0.0047729998 0.023727
0.069999002 0.001591 0.023727
0.069999002 -0.001591 0.023727
0.069999002 -0.0047729998 0.023727
0.069999002 -0.0079549998 0.023727
0.069999002 -0.011136 0.023727
0.069999002 0.011136 0.026000001
0.069999002 0.0079549998 0.026000001
0.069999002 0.0047729998 0.026000001
0.069999002 0.001591 0.026000001
0.069999002 -0.001591 0.026000001
0.069999002 -0.0047729998 0.026000001
0.069999002 -0.0079549998 0.026000001
0.069999002 -0.011136 0.026000001
0.069999002 -0.014318 0.026000001
-0.070000999 0.014318 0.001
-0.070000999 0.0175 0.003273
-0.070000999 0.0175 0.001
-0.070000999 0.011136 0.001
-0.070000999 0.014318 0.003273
-0.070000999 0.0079549998 0.001
-0.070000999 0.011136 0.003273
-0.070000999 0.0047729998 0.001
-0.070000999 0.0079549998 0.003273
-0.070000999 0.001591 0.001
-0.070000999 0.0047729998 0.003273
-0.070000999 -0.001591 0.001
-0.070000999 0.001591 0.003273
-0.070000999 -0.0047729998 0.001
-0.070000999 -0.001591 0.003273
-0.070000999 -0.0079549998 0.001
-0.070000999 -0.0047729998 0.003273
-0.070000999 -0.011136 0.001
-0.070000999 -0.0079549998 0.003273
-0.070000999 -0.011136 0.003273
-0.070000999 0.0175 0.0055450001
-0.070000999 0.014318 0.0055450001
-0.070000999 0.0175 0.0078180004
-0.070000999 0.011136 0.0055450001
-0.070000999 0.014318 0.0078180004
-0.070000999 0.0175 0.010091
-0.070000999 0.0079549998 0.0055450001
-0.070000999 0.011136 0.0078180004
-0.070000999 0.014318 0.010091
-0.070000999 0.0175 0.012364
-0.070000999 0.0047729998 0.0055450001
-0.070000999 0.0079549998 0.0078180004
-0.070000999 0.011136 0.010091
-0.070000999 0.014318 0.012364
-0.070000999 0.0175 0.014636
-0.070000999 0.001591 0.0055450001
-0.070000999 0.0047729998 0.0078180004
-0.070000999 0.0079549998 0.010091
-0.070000999 0.011136 0.012364
-0.070000999 0.014318 0.014636
-0.070000999 0.0175 0.016909
-0.070000999 -0.001591 0.0055450001
-0.070000999 0.001591 0.0078180004
-0.070000999 0.0047729998 0.010091
-0.070000999 0.0079549998 0.012364
-0.070000999 0.011136 0.014636
-0.070000999 0.014318 0.016909
-0.070000999 0.0175 0.019182
-0.070000999 -0.0047729998 0.0055450001
-0.070000999 -0.001591 0.0078180004
-0.070000999 0.001591 0.010091
-0.070000999 0.0047729998 0.012364
-0.070000999 0.0079549998 0.014636
-0.070000999 0.011136 0.016909
-0.070000999 0.014318 0.019182
-0.070000999 0.0175 0.021454999
-0.070000999 -0.0079549998 0.0055450001
-0.070000999 -0.0047729998 0.0078180004
-0.070000999 -0.001591 0.010091
-0.070000999 0.001591 0.012364
-0.070000999 0.0047729998 0.014636
-0.070000999 0.0079549998 0.016909
-0.070000999 0.011136 0.019182
-0.070000999 0.014318 0.021454999
-0.070000999 0.0175 0.023727
-0.070000999 -0.011136 0.0055450001
-0.070000999 -0.0079549998 0.0078180004
-0.070000999 -0.0047729998 0.010091
-0.070000999 -0.001591 0.012364
-0.070000999 0.001591 0.014636
-0.070000999 0.0047729998 0.016909
-0.070000999 0.0079549998 0.019182
-0.070000999 0.011136 0.021454999
-0.070000999 0.014318 0.023727
-0.070000999 0.0175 0.026000001
-0.070000999 -0.0175 0.003273
-0.070000999 -0.0175 0.0055450001
-0.070000999 -0.014318 0.0055450001
-0.070000999 -0.0175 0.0078180004
-0.070000999 -0.014318 0.0078180004
-0.070000999 -0.0175 0.010091
-0.070000999 -0.014318 0.010091
-0.070000999 -0.0175 0.012364
-0.070000999 -0.014318 0.012364
-0.070000999 -0.0175 0.014636
-0.070000999 -0.014318 0.014636
-0.070000999 -0.0175 0.016909
-0.070000999 -0.014318 0.016909
-0.070000999 -0.0175 0.019182
-0.070000999 -0.014318 0.019182
-0.070000999 -0.0175 0.021454999
-0.070000999 -0.014318 0.021454999
-0.070000999 -0.014318 0.023727
-0.070000999 -0.011136 0.0078180004
-0.070000999 -0.011136 0.010091
-0.070000999 -0.0079549998 0.010091
-0.070000999 -0.011136 0.012364
-0.070000999 -0.0079549998 0.012364
-0.070000999 -0.0047729998 0.012364
-0.070000999 -0.011136 0.014636
-0.070000999 -0.0079549998 0.014636
-0.070000999 -0.0047729998 0.014636
-0.070000999 -0.001591 0.014636
-0.070000999 -0.011136 0.016909
-0.070000999 -0.0079549998 0.016909
-0.070000999 -0.0047729998 0.016909
-0.070000999 -0.001591 0.016909
-0.070000999 0.001591 0.016909
-0.070000999 -0.011136 0.019182
-0.070000999 -0.0079549998 0.019182
-0.070000999 -0.0047729998 0.019182
-0.070000999 -0.001591 0.019182
-0.070000999 0.001591 0.019182
-0.070000999 0.0047729998 0.019182
-0.070000999 -0.011136 0.021454999
-0.070000999 -0.0079549998 0.021454999
-0.070000999 -0.0047729998 0.021454999
-0.070000999 -0.001591 0.021454999
-0.070000999 0.001591 0.021454999
-0.070000999 0.0047729998 0.021454999
-0.070000999 0.0079549998 0.021454999
-0.070000999 -0.011136 0.023727
-0.070000999 -0.0079549998 0.023727
-0.070000999 -0.0047729998 0.023727
-0.070000999 -0.001591 0.023727
-0.070000999 0.001591 0.023727
-0.070000999 0.0047729998 0.023727
-0.070000999 0.0079549998 0.023727
-0.070000999 0.011136 0.023727
-0.070000999 -0.011136 0.026000001
-0.070000999 -0.0079549998 0.026000001
-0.070000999 -0.0047729998 0.026000001
-0.070000999 -0.001591 0.026000001
-0.070000999 0.001591 0.026000001
-0.070000999 0.0047729998 0.026000001
-0.070000999 0.0079549998 0.026000001
-0.070000999 0.011136 0.026000001
-0.070000999 0.014318 0.026000001
-0.070000999 0.014318 0.026000001
-0.065228 0.0175 0.026000001
-0.070000999 0.0175 0.026000001
-0.070000999 0.011136 0.026000001
-0.065228 0.014318 0.026000001
-0.070000999 0.0079549998 0.026000001
-0.065228 0.011136 0.026000001
-0.070000999 0.0047729998 0.026000001
-0.065228 0.0079549998 0.026000001
-0.070000999 0.001591 0.026000001
-0.065228 0.0047729998 0.026000001
-0.070000999 -0.001591 0.026000001
-0.065228 0.001591 0.026000001
-0.070000999 -0.0047729998 0.026000001
-0.065228 -0.001591 0.026000001
-0.070000999 -0.0079549998 0.026000001
-0.065228 -0.0047729998 0.026000001
-0.070000999 -0.011136 0.026000001
-0.065228 -0.0079549998 0.026000001
-0.065228 -0.011136 0.026000001
-0.060456 0.0175 0.026000001
-0.060456 0.014318 0.026000001
-0.055682998 0.0175 0.026000001
-0.060456 0.011136 0.026000001
-0.055682998 0.014318 0.026000001
-0.05091 0.0175 0.026000001
-0.060456 0.0079549998 0.026000001
-0.055682998 0.011136 0.026000001
-0.05091 0.014318 0.026000001
-0.046137001 0.0175 0.026000001
-0.060456 0.0047729998 0.026000001
-0.055682998 0.0079549998 0.026000001
-0.05091 0.011136 0.026000001
-0.046137001 0.014318 0.026000001
-0.041365001 0.0175 0.026000001
-0.060456 0.001591 0.026000001
-0.055682998 0.0047729998 0.026000001
-0.05091 0.0079549998 0.026000001
-0.046137001 0.011136 0.026000001
-0.041365001 0.014318 0.026000001
-0.036591999 0.0175 0.026000001
-0.060456 -0.001591 0.026000001
-0.055682998 0.001591 0.026000001
-0.05091 0.0047729998 0.026000001
-0.046137001 0.0079549998 0.026000001
-0.041365001 0.011136 0.026000001
-0.036591999 0.014318 0.026000001
-0.031819001 0.0175 0.026000001
-0.060456 -0.0047729998 0.026000001
-0.055682998 -0.001591 0.026000001
-0.05091 0.001591 0.026000001
-0.046137001 0.0047729998 0.026000001
-0.041365001 0.0079549998 0.026000001
-0.036591999 0.011136 0.026000001
-0.031819001 0.014318 0.026000001
-0.027046001 0.0175 0.026000001
-0.060456 -0.0079549998 0.026000001
-0.055682998 -0.0047729998 0.026000001
-0.05091 -0.001591 0.026000001
-0.046137001 0.001591 0.026000001
-0.041365001 0.0047729998 0.026000001
-0.036591999 0.0079549998 0.026000001
-0.031819001 0.011136 0.026000001
-0.027046001 0.014318 0.026000001
-0.022274001 0.0175 0.026000001
-0.060456 -0.011136 0.026000001
-0.055682998 -0.0079549998 0.026000001
-0.05091 -0.0047729998 0.026000001
-0.046137001 -0.001591 0.026000001
-0.041365001 0.001591 0.026000001
-0.036591999 0.0047729998 0.026000001
-0.031819001 0.0079549998 0.026000001
-0.027046001 0.011136 0.026000001
-0.022274001 0.014318 0.026000001
-0.017501 0.0175 0.026000001
-0.065228 -0.0175 0.026000001
-0.060456 -0.0175 0.026000001
-0.060456 -0.014318 0.026000001
-0.055682998 -0.0175 0.026000001
-0.055682998 -0.014318 0.026000001
-0.05091 -0.0175 0.026000001
-0.05091 -0.014318 0.026000001
-0.046137001 -0.0175 0.026000001
-0.046137001 -0.014318 0.026000001
-0.041365001 -0.0175 0.026000001
-0.041365001 -0.014318 0.026000001
-0.036591999 -0.0175 0.026000001
-0.036591999 -0.014318 0.026000001
-0.031819001 -0.0175 0.026000001
-0.031819001 -0.014318 0.026000001
-0.027046001 -0.0175 0.026000001
-0.027046001 -0.014318 0.026000001
-0.022274001 -0.014318 0.026000001
-0.055682998 -0.011136 0.026000001
-0.05091 -0.011136 0.026000001
-0.05091 -0.0079549998 0.026000001
-0.046137001 -0.011136 0.026000001
-0.046137001 -0.0079549998 0.026000001
-0.046137001 -0.0047729998 0.026000001
-0.041365001 -0.011136 0.026000001
-0.041365001 -0.0079549998 0.026000001
-0.041365001 -0.0047729998 0.026000001
-0.041365001 -0.001591 0.026000001
-0.036591999 -0.011136 0.026000001
-0.036591999 -0.0079549998 0.026000001
-0.036591999 -0.0047729998 0.026000001
-0.036591999 -0.001591 0.026000001
-0.036591999 0.001591 0.026000001
-0.031819001 -0.011136 0.026000001
-0.031819001 -0.0079549998 0.026000001
-0.031819001 -0.0047729998 0.026000001
-0.031819001 -0.001591 0.026000001
-0.031819001 0.001591 0.026000001
-0.031819001 0.0047729998 0.026000001
-0.027046001 -0.011136 0.026000001
-0.027046001 -0.0079549998 0.026000001
-0.027046001 -0.0047729998 0.026000001
-0.027046001 -0.001591 0.026000001
-0.027046001 0.001591 0.026000001
-0.027046001 0.0047729998 0.026000001
-0.027046001 0.0079549998 0.026000001
-0.022274001 -0.011136 0.026000001
-0.022274001 -0.0079549998 0.026000001
-0.022274001 -0.0047729998 0.026000001
-0.022274001 -0.001591 0.026000001
-0.022274001 0.001591 0.026000001
-0.022274001 0.0047729998 0.026000001
-0.022274001 0.0079549998 0.026000001
-0.022274001 0.011136 0.026000001
-0.017501 -0.011136 0.026000001
-0.017501 -0.0079549998 0.026000001
-0.017501 -0.0047729998 0.026000001
-0.017501 -0.001591 0.026000001
-0.017501 0.001591 0.026000001
-0.017501 0.0047729998 0.026000001
-0.017501 0.0079549998 0.026000001
-0.017501 0.011136 0.026000001
-0.017501 0.014318 0.026000001
0.069999002 -0.014318 0.026000001
0.065226004 -0.0175 0.026000001
0.069999002 -0.0175 0.026000001
0.069999002 -0.011136 0.026000001
0.065226004 -0.014318 0.026000001
0.069999002 -0.0079549998 0.026000001
0.065226004 -0.011136 0.026000001
0.069999002 -0.0047729998 0.026000001
0.065226004 -0.0079549998 0.026000001
0.069999002 -0.001591 0.026000001
0.065226004 -0.0047729998 0.026000001
0.069999002 0.001591 0.026000001
0.065226004 -0.001591 0.026000001
0.069999002 0.0047729998 0.026000001
0.065226004 0.001591 0.026000001
0.069999002 0.0079549998 0.026000001
0.065226004 0.0047729998 0.026000001
0.069999002 0.011136 0.026000001
0.065226004 0.0079549998 0.026000001
0.065226004 0.011136 0.026000001
0.060454 -0.0175 0.026000001
0.060454 -0.014318 0.026000001
0.055681001 -0.0175 0.026000001
0.060454 -0.011136 0.026000001
0.055681001 -0.014318 0.026000001
0.050907999 -0.0175 0.026000001
0.060454 -0.0079549998 0.026000001
0.055681001 -0.011136 0.026000001
0.050907999 -0.014318 0.026000001
0.046135001 -0.0175 0.026000001
0.060454 -0.0047729998 0.026000001
0.055681001 -0.0079549998 0.026000001
0.050907999 -0.011136 0.026000001
0.046135001 -0.014318 0.026000001
0.041363001 -0.0175 0.026000001
0.060454 -0.001591 0.026000001
0.055681001 -0.0047729998 0.026000001
0.050907999 -0.0079549998 0.026000001
0.046135001 -0.011136 0.026000001
0.041363001 -0.014318 0.026000001
0.036589999 -0.0175 0.026000001
0.060454 0.001591 0.026000001
0.055681001 -0.001591 0.026000001
0.050907999 -0.0047729998 0.026000001
0.046135001 -0.0079549998 0.026000001
0.041363001 -0.011136 0.026000001
0.036589999 -0.014318 0.026000001
0.031817 -0.0175 0.026000001
0.060454 0.0047729998 0.026000001
0.055681001 0.001591 0.026000001
0.050907999 -0.001591 0.026000001
0.046135001 -0.0047729998 0.026000001
0.041363001 -0.0079549998 0.026000001
0.036589999 -0.011136 0.026000001
0.031817 -0.014318 0.026000001
0.027044 -0.0175 0.026000001
0.060454 0.0079549998 0.026000001
0.055681001 0.0047729998 0.026000001
0.050907999 0.001591 0.026000001
0.046135001 -0.001591 0.026000001
0.041363001 -0.0047729998 0.026000001
0.036589999 -0.0079549998 0.026000001
0.031817 -0.011136 0.026000001
0.027044 -0.014318 0.026000001
0.022272 -0.0175 0.026000001
0.060454 0.011136 0.026000001
0.055681001 0.0079549998 0.026000001
0.050907999 0.0047729998 0.026000001
0.046135001 0.001591 0.026000001
0.041363001 -0.001591 0.026000001
0.036589999 -0.0047729998 0.026000001
0.031817 -0.0079549998 0.026000001
0.027044 -0.011136 0.026000001
0.022272 -0.014318 0.026000001
0.017499 -0.0175 0.026000001
0.065226004 0.0175 0.026000001
0.060454 0.0175 0.026000001
0.060454 0.014318 0.026000001
0.055681001 0.0175 0.026000001
0.055681001 0.014318 0.026000001
0.050907999 0.0175 0.026000001
0.050907999 0.014318 0.026000001
0.046135001 0.0175 0.026000001
0.046135001 0.014318 0.026000001
0.041363001 0.0175 0.026000001
0.041363001 0.014318 0.026000001
0.036589999 0.0175 0.026000001
0.036589999 0.014318 0.026000001
0.031817 0.0175 0.026000001
0.031817 0.014318 0.026000001
0.027044 0.0175 0.026000001
0.027044 0.014318 0.026000001
0.022272 0.014318 0.026000001
0.055681001 0.011136 0.026000001
0.050907999 0.011136 0.026000001
0.050907999 0.0079549998 0.026000001
0.046135001 0.011136 0.026000001
0.046135001 0.0079549998 0.026000001
0.046135001 0.0047729998 0.026000001
0.041363001 0.011136 0.026000001
0.041363001 0.0079549998 0.026000001
0.041363001 0.0047729998 0.026000001
0.041363001 0.001591 0.026000001
0.036589999 0.011136 0.026000001
0.036589999 0.0079549998 0.026000001
0.036589999 0.0047729998 0.026000001
0.036589999 0.001591 0.026000001
0.036589999 -0.001591 0.026000001
0.031817 0.011136 0.026000001
0.031817 0.0079549998 0.026000001
0.031817 0.0047729998 0.026000001
0.031817 0.001591 0.026000001
0.031817 -0.001591 0.026000001
0.031817 -0.0047729998 0.026000001
0.027044 0.011136 0.026000001
0.027044 0.0079549998 0.026000001
0.027044 0.0047729998 0.026000001
0.027044 0.001591 0.026000001
0.027044 -0.001591 0.026000001
0.027044 -0.0047729998 0.026000001
0.027044 -0.0079549998 0.026000001
0.022272 0.011136 0.026000001
0.022272 0.0079549998 0.026000001
0.022272 0.0047729998 0.026000001
0.022272 0.001591 0.026000001
0.022272 -0.001591 0.026000001
0.022272 -0.0047729998 0.026000001
0.022272 -0.0079549998 0.026000001
0.022272 -0.011136 0.026000001
0.017499 0.011136 0.026000001
0.017499 0.0079549998 0.026000001
0.017499 0.0047729998 0.026000001
0.017499 0.001591 0.026000001
0.017499 -0.001591 0.026000001
0.017499 -0.0047729998 0.026000001
0.017499 -0.0079549998 0.026000001
0.017499 -0.011136 0.026000001
0.017499 -0.014318 0.026000001
-0.070000999 -0.0175 0.003273
-0.060456 -0.0175 0.0055450001
-0.065228 -0.0175 0.0055450001
-0.055682998 -0.0175 0.0078180004
-0.060456 -0.0175 0.0078180004
-0.05091 -0.0175 0.010091
-0.055682998 -0.0175 0.010091
-0.046137001 -0.0175 0.012364
-0.05091 -0.0175 0.012364
-0.041365001 -0.0175 0.014636
-0.046137001 -0.0175 0.014636
-0.036591999 -0.0175 0.016909
-0.041365001 -0.0175 0.016909
-0.031819001 -0.0175 0.019182
-0.036591999 -0.0175 0.019182
-0.027046001 -0.0175 0.021454999
-0.031819001 -0.0175 0.021454999
-0.027046001 -0.0175 0.023727
-0.070000999 -0.0175 0.0055450001
-0.065228 -0.0175 0.0078180004
-0.070000999 -0.0175 0.0078180004
-0.060456 -0.0175 0.010091
-0.065228 -0.0175 0.010091
-0.070000999 -0.0175 0.010091
-0.055682998 -0.0175 0.012364
-0.060456 -0.0175 0.012364
-0.065228 -0.0175 0.012364
-0.070000999 -0.0175 0.012364
-0.05091 -0.0175 0.014636
-0.055682998 -0.0175 0.014636
-0.060456 -0.0175 0.014636
-0.065228 -0.0175 0.014636
-0.070000999 -0.0175 0.014636
-0.046137001 -0.0175 0.016909
-0.05091 -0.0175 0.016909
-0.055682998 -0.0175 0.016909
-0.060456 -0.0175 0.016909
-0.065228 -0.0175 0.016909
-0.070000999 -0.0175 0.016909
-0.041365001 -0.0175 0.019182
-0.046137001 -0.0175 0.019182
-0.05091 -0.0175 0.019182
-0.055682998 -0.0175 0.019182
-0.060456 -0.0175 0.019182
-0.065228 -0.0175 0.019182
-0.070000999 -0.0175 0.019182
-0.036591999 -0.0175 0.021454999
-0.041365001 -0.0175 0.021454999
-0.046137001 -0.0175 0.021454999
-0.05091 -0.0175 0.021454999
-0.055682998 -0.0175 0.021454999
-0.060456 -0.0175 0.021454999
-0.065228 -0.0175 0.021454999
-0.070000999 -0.0175 0.021454999
-0.031819001 -0.0175 0.023727
-0.036591999 -0.0175 0.023727
-0.041365001 -0.0175 0.023727
-0.046137001 -0.0175 0.023727
-0.05091 -0.0175 0.023727
-0.055682998 -0.0175 0.023727
-0.060456 -0.0175 0.023727
-0.065228 -0.0175 0.023727
-0.070000999 -0.0175 0.023727
-0.027046001 -0.0175 0.026000001
-0.031819001 -0.0175 0.026000001
-0.036591999 -0.0175 0.026000001
-0.041365001 -0.0175 0.026000001
-0.046137001 -0.0175 0.026000001
-0.05091 -0.0175 0.026000001
-0.055682998 -0.0175 0.026000001
-0.060456 -0.0175 0.026000001
-0.065228 -0.0175 0.026000001
-0.070000999 -0.0175 0.026000001
0.022272 -0.0175 0.026000001
0.027044 -0.0175 0.021454999
0.027044 -0.0175 0.023727
0.031817 -0.0175 0.019182
0.031817 -0.0175 0.021454999
0.036589999 -0.0175 0.016909
0.036589999 -0.0175 0.019182
0.041363001 -0.0175 0.014636
0.041363001 -0.0175 0.016909
0.046135001 -0.0175 0.012364
0.046135001 -0.0175 0.014636
0.050907999 -0.0175 0.010091
0.050907999 -0.0175 0.012364
0.055681001 -0.0175 0.0078180004
0.055681001 -0.0175 0.010091
0.060454 -0.0175 0.0055450001
0.060454 -0.0175 0.0078180004
0.065226004 -0.0175 0.0055450001
0.027044 -0.0175 0.026000001
0.031817 -0.0175 0.023727
0.031817 -0.0175 0.026000001
0.036589999 -0.0175 0.021454999
0.036589999 -0.0175 0.023727
0.036589999 -0.0175 0.026000001
0.041363001 -0.0175 0.019182
0.041363001 -0.0175 0.021454999
0.041363001 -0.0175 0.023727
0.041363001 -0.0175 0.026000001
0.046135001 -0.0175 0.016909
0.046135001 -0.0175 0.019182
0.046135001 -0.0175 0.021454999
0.046135001 -0.0175 0.023727
0.046135001 -0.0175 0.026000001
0.050907999 -0.0175 0.014636
0.050907999 -0.0175 0.016909
0.050907999 -0.0175 0.019182
0.050907999 -0.0175 0.021454999
0.050907999 -0.0175 0.023727
0.050907999 -0.0175 0.026000001
0.055681001 -0.0175 0.012364
0.055681001 -0.0175 0.014636
0.055681001 -0.0175 0.016909
0.055681001 -0.0175 0.019182
0.055681001 -0.0175 0.021454999
0.055681001 -0.0175 0.023727
0.055681001 -0.0175 0.026000001
0.060454 -0.0175 0.010091
0.060454 -0.0175 0.012364
0.060454 -0.0175 0.014636
0.060454 -0.0175 0.016909
0.060454 -0.0175 0.019182
0.060454 -0.0175 0.021454999
0.060454 -0.0175 0.023727
0.060454 -0.0175 0.026000001
0.065226004 -0.0175 0.0078180004
0.065226004 -0.0175 0.010091
0.065226004 -0.0175 0.012364
0.065226004 -0.0175 0.014636
0.065226004 -0.0175 0.016909
0.065226004 -0.0175 0.019182
0.065226004 -0.0175 0.021454999
0.065226004 -0.0175 0.023727
0.065226004 -0.0175 0.026000001
0.069999002 -0.0175 0.0055450001
0.069999002 -0.0175 0.0078180004
0.069999002 -0.0175 0.010091
0.069999002 -0.0175 0.012364
0.069999002 -0.0175 0.014636
0.069999002 -0.0175 0.016909
0.069999002 -0.0175 0.019182
0.069999002 -0.0175 0.021454999
0.069999002 -0.0175 0.023727
0.069999002 -0.0175 0.026000001
0.064544 -0.0175 0.001
0.059772 -0.0175 0.003273
0.054999001 -0.0175 0.0055450001
0.050225999 -0.0175 0.0078180004
0.045453999 -0.0175 0.010091
0.040681001 -0.0175 0.012364
0.035907999 -0.0175 0.014636
0.031135 -0.0175 0.016909
0.026363 -0.0175 0.019182
0.02159 -0.0175 0.021454999
0.05909 -0.0175 0.001
0.054317001 -0.0175 0.003273
0.053635001 -0.0175 0.001
0.049543999 -0.0175 0.0055450001
0.048863001 -0.0175 0.003273
0.048181001 -0.0175 0.001
0.044771999 -0.0175 0.0078180004
0.044089999 -0.0175 0.0055450001
0.043407999 -0.0175 0.003273
0.042725999 -0.0175 0.001
0.039999001 -0.0175 0.010091
0.039317001 -0.0175 0.0078180004
0.038635001 -0.0175 0.0055450001
0.037953999 -0.0175 0.003273
0.037271999 -0.0175 0.001
0.035225999 -0.0175 0.012364
0.034543999 -0.0175 0.010091
0.033863001 -0.0175 0.0078180004
0.033181001 -0.0175 0.0055450001
0.032499 -0.0175 0.003273
0.031817 -0.0175 0.001
0.030454 -0.0175 0.014636
0.029772 -0.0175 0.012364
0.02909 -0.0175 0.010091
0.028408 -0.0175 0.0078180004
0.027726 -0.0175 0.0055450001
0.027044 -0.0175 0.003273
0.026363 -0.0175 0.001
0.025681 -0.0175 0.016909
0.024999 -0.0175 0.014636
0.024317 -0.0175 0.012364
0.023635 -0.0175 0.010091
0.022954 -0.0175 0.0078180004
0.022272 -0.0175 0.0055450001
0.02159 -0.0175 0.003273
0.020908 -0.0175 0.001
0.020908 -0.0175 0.019182
0.020226 -0.0175 0.016909
0.019544 -0.0175 0.014636
0.018863 -0.0175 0.012364
0.018181 -0.0175 0.010091
0.017499 -0.0175 0.0078180004
0.016817 -0.0175 0.0055450001
0.016135 -0.0175 0.003273
0.015454 -0.0175 0.001
0.016135 -0.0175 0.021454999
0.015454 -0.0175 0.019182
0.014772 -0.0175 0.016909
0.01409 -0.0175 0.014636
0.013408 -0.0175 0.012364
0.012726 -0.0175 0.010091
0.012044 -0.0175 0.0078180004
0.011363 -0.0175 0.0055450001
0.010681 -0.0175 0.003273
0.0099989995 -0.0175 0.001
0.0099989995 -0.0175 0.0055450001
0.010681 -0.0175 0.0078180004
0.011363 -0.0175 0.010091
0.012044 -0.0175 0.012364
0.012726 -0.0175 0.014636
0.013408 -0.0175 0.016909
0.01409 -0.0175 0.019182
0.014772 -0.0175 0.021454999
0.015454 -0.0175 0.023727
0.016135 -0.0175 0.026000001
0.0099989995 -0.0175 0.010091
0.010681 -0.0175 0.012364
0.0099989995 -0.0175 0.014636
0.011363 -0.0175 0.014636
0.010681 -0.0175 0.016909
0.0099989995 -0.0175 0.019182
0.012044 -0.0175 0.016909
0.011363 -0.0175 0.019182
0.010681 -0.0175 0.021454999
0.0099989995 -0.0175 0.023727
0.012726 -0.0175 0.019182
0.012044 -0.0175 0.021454999
0.011363 -0.0175 0.023727
0.010681 -0.0175 0.026000001
0.0099989995 -0.0175 0.028272999
0.013408 -0.0175 0.021454999
0.012726 -0.0175 0.023727
0.012044 -0.0175 0.026000001
0.011363 -0.0175 0.028272999
0.010681 -0.0175 0.030545
0.0099989995 -0.0175 0.032818001
0.01409 -0.0175 0.023727
0.013408 -0.0175 0.026000001
0.012726 -0.0175 0.028272999
0.012044 -0.0175 0.030545
0.011363 -0.0175 0.032818001
0.010681 -0.0175 0.035091002
0.0099989995 -0.0175 0.037363999
0.014772 -0.0175 0.026000001
0.01409 -0.0175 0.028272999
0.013408 -0.0175 0.030545
0.012726 -0.0175 0.032818001
0.012044 -0.0175 0.035091002
0.011363 -0.0175 0.037363999
0.010681 -0.0175 0.039636001
0.0099989995 -0.0175 0.041909002
0.015454 -0.0175 0.028272999
0.014772 -0.0175 0.030545
0.01409 -0.0175 0.032818001
0.013408 -0.0175 0.035091002
0.012726 -0.0175 0.037363999
0.012044 -0.0175 0.039636001
0.011363 -0.0175 0.041909002
0.010681 -0.0175 0.044181999
0.0099989995 -0.0175 0.046455
0.016135 -0.0175 0.030545
0.015454 -0.0175 0.032818001
0.014772 -0.0175 0.035091002
0.01409 -0.0175 0.037363999
0.013408 -0.0175 0.039636001
0.012726 -0.0175 0.041909002
0.012044 -0.0175 0.044181999
0.011363 -0.0175 0.046455
0.010681 -0.0175 0.048726998
0.0099989995 -0.0175 0.050999999
0.017499 -0.0175 0.029635999
0.017499 -0.0175 0.033273
0.016817 -0.0175 0.031909
0.017499 -0.0175 0.036908999
0.016817 -0.0175 0.035544999
0.017499 -0.0175 0.040545002
0.016817 -0.0175 0.039182
0.017499 -0.0175 0.044181999
0.016817 -0.0175 0.042817999
0.017499 -0.0175 0.047818001
0.016817 -0.0175 0.046455
0.017499 -0.0175 0.051454999
0.016817 -0.0175 0.050090998
0.017499 -0.0175 0.055091001
0.016817 -0.0175 0.053727001
0.017499 -0.0175 0.058727
0.016817 -0.0175 0.057363998
0.016817 -0.0175 0.061000001
0.016135 -0.0175 0.034182001
0.016135 -0.0175 0.037818
0.015454 -0.0175 0.036455002
0.016135 -0.0175 0.041455001
0.015454 -0.0175 0.040091
0.014772 -0.0175 0.038727
0.016135 -0.0175 0.045090999
0.015454 -0.0175 0.043726999
0.014772 -0.0175 0.042364001
0.01409 -0.0175 0.041000001
0.016135 -0.0175 0.048726998
0.015454 -0.0175 0.047364
0.014772 -0.0175 0.046
0.01409 -0.0175 0.044636
0.013408 -0.0175 0.043272998
0.016135 -0.0175 0.052363999
0.015454 -0.0175 0.050999999
0.014772 -0.0175 0.049635999
0.01409 -0.0175 0.048273001
0.013408 -0.0175 0.046909001
0.012726 -0.0175 0.045545001
0.016135 -0.0175 0.056000002
0.015454 -0.0175 0.054636002
0.014772 -0.0175 0.053273
0.01409 -0.0175 0.051909
0.013408 -0.0175 0.050545
0.012726 -0.0175 0.049182002
0.012044 -0.0175 0.047818001
0.016135 -0.0175 0.059636001
0.015454 -0.0175 0.058272999
0.014772 -0.0175 0.056908999
0.01409 -0.0175 0.055544998
0.013408 -0.0175 0.054182
0.012726 -0.0175 0.052818
0.012044 -0.0175 0.051454999
0.011363 -0.0175 0.050090998
0.016135 -0.0175 0.063272998
0.015454 -0.0175 0.061909001
0.014772 -0.0175 0.060545001
0.01409 -0.0175 0.059181999
0.013408 -0.0175 0.057817999
0.012726 -0.0175 0.056455001
0.012044 -0.0175 0.055091001
0.011363 -0.0175 0.053727001
0.010681 -0.0175 0.052363999
0.015907999 -0.0175 0.066
0.014317 -0.0175 0.066
0.015226 -0.0175 0.064636
0.012726 -0.0175 0.066
0.013635 -0.0175 0.064636
0.011135 -0.0175 0.066
0.012044 -0.0175 0.064636
0.009544 -0.0175 0.066
0.010454 -0.0175 0.064636
0.0079539996 -0.0175 0.066
0.0088630002 -0.0175 0.064636
0.0063629998 -0.0175 0.066
0.007272 -0.0175 0.064636
0.004772 -0.0175 0.066
0.0056810002 -0.0175 0.064636
0.003181 -0.0175 0.066
0.0040899999 -0.0175 0.064636
0.0024989999 -0.0175 0.064636
0.014544 -0.0175 0.063272998
0.012954 -0.0175 0.063272998
0.013863 -0.0175 0.061909001
0.011363 -0.0175 0.063272998
0.012272 -0.0175 0.061909001
0.013181 -0.0175 0.060545001
0.0097719999 -0.0175 0.063272998
0.010681 -0.0175 0.061909001
0.01159 -0.0175 0.060545001
0.012499 -0.0175 0.059181999
0.0081810001 -0.0175 0.063272998
0.0090899998 -0.0175 0.061909001
0.0099989995 -0.0175 0.060545001
0.010908 -0.0175 0.059181999
0.011817 -0.0175 0.057817999
0.0065899999 -0.0175 0.063272998
0.0074990001 -0.0175 0.061909001
0.0084079998 -0.0175 0.060545001
0.0093170004 -0.0175 0.059181999
0.010226 -0.0175 0.057817999
0.011135 -0.0175 0.056455001
0.0049990001 -0.0175 0.063272998
0.0059079998 -0.0175 0.061909001
0.006817 -0.0175 0.060545001
0.0077260002 -0.0175 0.059181999
0.0086350003 -0.0175 0.057817999
0.009544 -0.0175 0.056455001
0.010454 -0.0175 0.055091001
0.0034080001 -0.0175 0.063272998
0.004317 -0.0175 0.061909001
0.0052260002 -0.0175 0.060545001
0.0061349999 -0.0175 0.059181999
0.0070440001 -0.0175 0.057817999
0.0079539996 -0.0175 0.056455001
0.0088630002 -0.0175 0.055091001
0.0097719999 -0.0175 0.053727001
0.001817 -0.0175 0.063272998
0.002726 -0.0175 0.061909001
0.003635 -0.0175 0.060545001
0.0045440001 -0.0175 0.059181999
0.0054540001 -0.0175 0.057817999
0.0063629998 -0.0175 0.056455001
0.007272 -0.0175 0.055091001
0.0081810001 -0.0175 0.053727001
0.0090899998 -0.0175 0.052363999
0.0081810001 -0.0175 0.050999999
0.007272 -0.0175 0.052363999
0.0063629998 -0.0175 0.053727001
0.0054540001 -0.0175 0.055091001
0.0045440001 -0.0175 0.056455001
0.003635 -0.0175 0.057817999
0.002726 -0.0175 0.059181999
0.001817 -0.0175 0.060545001
0.00090799999 -0.0175 0.061909001
-1e-06 -0.0175 0.063272998
0.0063629998 -0.0175 0.050999999
0.0054540001 -0.0175 0.052363999
0.0045440001 -0.0175 0.050999999
0.0045440001 -0.0175 0.053727001
0.003635 -0.0175 0.052363999
0.002726 -0.0175 0.050999999
0.003635 -0.0175 0.055091001
0.002726 -0.0175 0.053727001
0.001817 -0.0175 0.052363999
0.00090799999 -0.0175 0.050999999
0.002726 -0.0175 0.056455001
0.001817 -0.0175 0.055091001
0.00090799999 -0.0175 0.053727001
-1e-06 -0.0175 0.052363999
-0.00091 -0.0175 0.050999999
0.001817 -0.0175 0.057817999
0.00090799999 -0.0175 0.056455001
-1e-06 -0.0175 0.055091001
-0.00091 -0.0175 0.053727001
-0.001819 -0.0175 0.052363999
-0.0027280001 -0.0175 0.050999999
0.00090799999 -0.0175 0.059181999
-1e-06 -0.0175 0.057817999
-0.00091 -0.0175 0.056455001
-0.001819 -0.0175 0.055091001
-0.0027280001 -0.0175 0.053727001
-0.003637 -0.0175 0.052363999
-0.0045460002 -0.0175 0.050999999
-1e-06 -0.0175 0.060545001
-0.00091 -0.0175 0.059181999
-0.001819 -0.0175 0.057817999
-0.0027280001 -0.0175 0.056455001
-0.003637 -0.0175 0.055091001
-0.0045460002 -0.0175 0.053727001
-0.0054560001 -0.0175 0.052363999
-0.0063649998 -0.0175 0.050999999
-0.00091 -0.0175 0.061909001
-0.001819 -0.0175 0.060545001
-0.0027280001 -0.0175 0.059181999
-0.003637 -0.0175 0.057817999
-0.0045460002 -0.0175 0.056455001
-0.0054560001 -0.0175 0.055091001
-0.0063649998 -0.0175 0.053727001
-0.007274 -0.0175 0.052363999
-0.0081829997 -0.0175 0.050999999
-0.001819 -0.0175 0.063272998
-0.0027280001 -0.0175 0.061909001
-0.003637 -0.0175 0.060545001
-0.0045460002 -0.0175 0.059181999
-0.0054560001 -0.0175 0.057817999
-0.0063649998 -0.0175 0.056455001
-0.007274 -0.0175 0.055091001
-0.0081829997 -0.0175 0.053727001
-0.0090920003 -0.0175 0.052363999
-0.010001 -0.0175 0.050999999
-0.001592 -0.0175 0.066
-0.003183 -0.0175 0.066
-0.002501 -0.0175 0.064636
-0.004774 -0.0175 0.066
-0.004092 -0.0175 0.064636
-0.0063649998 -0.0175 0.066
-0.0056830002 -0.0175 0.064636
-0.007956 -0.0175 0.066
-0.007274 -0.0175 0.064636
-0.0095459996 -0.0175 0.066
-0.0088649997 -0.0175 0.064636
-0.011137 -0.0175 0.066
-0.010456 -0.0175 0.064636
-0.012728 -0.0175 0.066
-0.012046 -0.0175 0.064636
-0.014319 -0.0175 0.066
-0.013637 -0.0175 0.064636
-0.015228 -0.0175 0.064636
-0.0034099999 -0.0175 0.063272998
-0.0050010001 -0.0175 0.063272998
-0.0043190001 -0.0175 0.061909001
-0.0065919999 -0.0175 0.063272998
-0.0059099998 -0.0175 0.061909001
-0.0052280002 -0.0175 0.060545001
-0.0081829997 -0.0175 0.063272998
-0.0075010001 -0.0175 0.061909001
-0.006819 -0.0175 0.060545001
-0.0061369999 -0.0175 0.059181999
-0.0097740004 -0.0175 0.063272998
-0.0090920003 -0.0175 0.061909001
-0.0084100002 -0.0175 0.060545001
-0.0077280002 -0.0175 0.059181999
-0.0070460001 -0.0175 0.057817999
-0.011365 -0.0175 0.063272998
-0.010683 -0.0175 0.061909001
-0.010001 -0.0175 0.060545001
-0.0093189999 -0.0175 0.059181999
-0.0086369999 -0.0175 0.057817999
-0.007956 -0.0175 0.056455001
-0.012956 -0.0175 0.063272998
-0.012274 -0.0175 0.061909001
-0.011592 -0.0175 0.060545001
-0.01091 -0.0175 0.059181999
-0.010228 -0.0175 0.057817999
-0.0095459996 -0.0175 0.056455001
-0.0088649997 -0.0175 0.055091001
-0.014546 -0.0175 0.063272998
-0.013865 -0.0175 0.061909001
-0.013183 -0.0175 0.060545001
-0.012501 -0.0175 0.059181999
-0.011819 -0.0175 0.057817999
-0.011137 -0.0175 0.056455001
-0.010456 -0.0175 0.055091001
-0.0097740004 -0.0175 0.053727001
-0.016137 -0.0175 0.063272998
-0.015456 -0.0175 0.061909001
-0.014774 -0.0175 0.060545001
-0.014092 -0.0175 0.059181999
-0.01341 -0.0175 0.057817999
-0.012728 -0.0175 0.056455001
-0.012046 -0.0175 0.055091001
-0.011365 -0.0175 0.053727001
-0.010683 -0.0175 0.052363999
-0.017501 -0.0175 0.062364001
-0.017501 -0.0175 0.058727
-0.016819 -0.0175 0.061000001
-0.017501 -0.0175 0.055091001
-0.016819 -0.0175 0.057363998
-0.017501 -0.0175 0.051454999
-0.016819 -0.0175 0.053727001
-0.017501 -0.0175 0.047818001
-0.016819 -0.0175 0.050090998
-0.017501 -0.0175 0.044181999
-0.016819 -0.0175 0.046455
-0.017501 -0.0175 0.040545002
-0.016819 -0.0175 0.042817999
-0.017501 -0.0175 0.036908999
-0.016819 -0.0175 0.039182
-0.017501 -0.0175 0.033273
-0.016819 -0.0175 0.035544999
-0.016819 -0.0175 0.031909
-0.016137 -0.0175 0.059636001
-0.016137 -0.0175 0.056000002
-0.015456 -0.0175 0.058272999
-0.016137 -0.0175 0.052363999
-0.015456 -0.0175 0.054636002
-0.014774 -0.0175 0.056908999
-0.016137 -0.0175 0.048726998
-0.015456 -0.0175 0.050999999
-0.014774 -0.0175 0.053273
-0.014092 -0.0175 0.055544998
-0.016137 -0.0175 0.045090999
-0.015456 -0.0175 0.047364
-0.014774 -0.0175 0.049635999
-0.014092 -0.0175 0.051909
-0.01341 -0.0175 0.054182
-0.016137 -0.0175 0.041455001
-0.015456 -0.0175 0.043726999
-0.014774 -0.0175 0.046
-0.014092 -0.0175 0.048273001
-0.01341 -0.0175 0.050545
-0.012728 -0.0175 0.052818
-0.016137 -0.0175 0.037818
-0.015456 -0.0175 0.040091
-0.014774 -0.0175 0.042364001
-0.014092 -0.0175 0.044636
-0.01341 -0.0175 0.046909001
-0.012728 -0.0175 0.049182002
-0.012046 -0.0175 0.051454999
-0.016137 -0.0175 0.034182001
-0.015456 -0.0175 0.036455002
-0.014774 -0.0175 0.038727
-0.014092 -0.0175 0.041000001
-0.01341 -0.0175 0.043272998
-0.012728 -0.0175 0.045545001
-0.012046 -0.0175 0.047818001
-0.011365 -0.0175 0.050090998
-0.016137 -0.0175 0.030545
-0.015456 -0.0175 0.032818001
-0.014774 -0.0175 0.035091002
-0.014092 -0.0175 0.037363999
-0.01341 -0.0175 0.039636001
-0.012728 -0.0175 0.041909002
-0.012046 -0.0175 0.044181999
-0.011365 -0.0175 0.046455
-0.010683 -0.0175 0.048726998
-0.010001 -0.0175 0.046455
-0.010683 -0.0175 0.044181999
-0.011365 -0.0175 0.041909002
-0.012046 -0.0175 0.039636001
-0.012728 -0.0175 0.037363999
-0.01341 -0.0175 0.035091002
-0.014092 -0.0175 0.032818001
-0.014774 -0.0175 0.030545
-0.015456 -0.0175 0.028272999
-0.016137 -0.0175 0.026000001
-0.010001 -0.0175 0.041909002
-0.010683 -0.0175 0.039636001
-0.010001 -0.0175 0.037363999
-0.011365 -0.0175 0.037363999
-0.010683 -0.0175 0.035091002
-0.010001 -0.0175 0.032818001
-0.012046 -0.0175 0.035091002
-0.011365 -0.0175 0.032818001
-0.010683 -0.0175 0.030545
-0.010001 -0.0175 0.028272999
-0.012728 -0.0175 0.032818001
-0.012046 -0.0175 0.030545
-0.011365 -0.0175 0.028272999
-0.010683 -0.0175 0.026000001
-0.010001 -0.0175 0.023727
-0.01341 -0.0175 0.030545
-0.012728 -0.0175 0.028272999
-0.012046 -0.0175 0.026000001
-0.011365 -0.0175 0.023727
-0.010683 -0.0175 0.021454999
-0.010001 -0.0175 0.019182
-0.014092 -0.0175 0.028272999
-0.01341 -0.0175 0.026000001
-0.012728 -0.0175 0.023727
-0.012046 -0.0175 0.021454999
-0.011365 -0.0175 0.019182
-0.010683 -0.0175 0.016909
-0.010001 -0.0175 0.014636
-0.014774 -0.0175 0.026000001
-0.014092 -0.0175 0.023727
-0.01341 -0.0175 0.021454999
-0.012728 -0.0175 0.019182
-0.012046 -0.0175 0.016909
-0.011365 -0.0175 0.014636
-0.010683 -0.0175 0.012364
-0.010001 -0.0175 0.010091
-0.015456 -0.0175 0.023727
-0.014774 -0.0175 0.021454999
-0.014092 -0.0175 0.019182
-0.01341 -0.0175 0.016909
-0.012728 -0.0175 0.014636
-0.012046 -0.0175 0.012364
-0.011365 -0.0175 0.010091
-0.010683 -0.0175 0.0078180004
-0.010001 -0.0175 0.0055450001
-0.016137 -0.0175 0.021454999
-0.015456 -0.0175 0.019182
-0.014774 -0.0175 0.016909
-0.014092 -0.0175 0.014636
-0.01341 -0.0175 0.012364
-0.012728 -0.0175 0.010091
-0.012046 -0.0175 0.0078180004
-0.011365 -0.0175 0.0055450001
-0.010683 -0.0175 0.003273
-0.010001 -0.0175 0.001
-0.021592 -0.0175 0.021454999
-0.026365001 -0.0175 0.019182
-0.031137001 -0.0175 0.016909
-0.035909999 -0.0175 0.014636
-0.040683001 -0.0175 0.012364
-0.045456 -0.0175 0.010091
-0.050228 -0.0175 0.0078180004
-0.055001002 -0.0175 0.0055450001
-0.059774 -0.0175 0.003273
-0.02091 -0.0175 0.019182
-0.025683001 -0.0175 0.016909
-0.020228 -0.0175 0.016909
-0.030455999 -0.0175 0.014636
-0.025001001 -0.0175 0.014636
-0.019546 -0.0175 0.014636
-0.035227999 -0.0175 0.012364
-0.029774001 -0.0175 0.012364
-0.024319001 -0.0175 0.012364
-0.018865 -0.0175 0.012364
-0.040001001 -0.0175 0.010091
-0.034545999 -0.0175 0.010091
-0.029092001 -0.0175 0.010091
-0.023637 -0.0175 0.010091
-0.018183 -0.0175 0.010091
-0.044774 -0.0175 0.0078180004
-0.039319001 -0.0175 0.0078180004
-0.033865001 -0.0175 0.0078180004
-0.028410001 -0.0175 0.0078180004
-0.022956001 -0.0175 0.0078180004
-0.017501 -0.0175 0.0078180004
-0.049546 -0.0175 0.0055450001
-0.044092 -0.0175 0.0055450001
-0.038637001 -0.0175 0.0055450001
-0.033183001 -0.0175 0.0055450001
-0.027728001 -0.0175 0.0055450001
-0.022274001 -0.0175 0.0055450001
-0.016819 -0.0175 0.0055450001
-0.054319002 -0.0175 0.003273
-0.048865002 -0.0175 0.003273
-0.043409999 -0.0175 0.003273
-0.037955999 -0.0175 0.003273
-0.032501001 -0.0175 0.003273
-0.027046001 -0.0175 0.003273
-0.021592 -0.0175 0.003273
-0.016137 -0.0175 0.003273
-0.059092 -0.0175 0.001
-0.053637002 -0.0175 0.001
-0.048183002 -0.0175 0.001
-0.042727999 -0.0175 0.001
-0.037273999 -0.0175 0.001
-0.031819001 -0.0175 0.001
-0.026365001 -0.0175 0.001
-0.02091 -0.0175 0.001
-0.015456 -0.0175 0.001
0.0081810001 -0.0175 0.050999999
0.0090899998 -0.016590999 0.050999999
0.0099989995 -0.0175 0.050999999
0.0063629998 -0.0175 0.050999999
0.007272 -0.016590999 0.050999999
0.0045440001 -0.0175 0.050999999
0.0054540001 -0.016590999 0.050999999
0.002726 -0.0175 0.050999999
0.003635 -0.016590999 0.050999999
0.00090799999 -0.0175 0.050999999
0.001817 -0.016590999 0.050999999
-0.00091 -0.0175 0.050999999
-1e-06 -0.016590999 0.050999999
-0.0027280001 -0.0175 0.050999999
-0.001819 -0.016590999 0.050999999
-0.0045460002 -0.0175 0.050999999
-0.003637 -0.016590999 0.050999999
-0.0063649998 -0.0175 0.050999999
-0.0054560001 -0.016590999 0.050999999
-0.007274 -0.016590999 0.050999999
0.0081810001 -0.015682001 0.050999999
0.0063629998 -0.015682001 0.050999999
0.007272 -0.014773 0.050999999
0.0045440001 -0.015682001 0.050999999
0.0054540001 -0.014773 0.050999999
0.0063629998 -0.013864 0.050999999
0.002726 -0.015682001 0.050999999
0.003635 -0.014773 0.050999999
0.0045440001 -0.013864 0.050999999
0.0054540001 -0.012955 0.050999999
0.00090799999 -0.015682001 0.050999999
0.001817 -0.014773 0.050999999
0.002726 -0.013864 0.050999999
0.003635 -0.012955 0.050999999
0.0045440001 -0.012045 0.050999999
-0.00091 -0.015682001 0.050999999
-1e-06 -0.014773 0.050999999
0.00090799999 -0.013864 0.050999999
0.001817 -0.012955 0.050999999
0.002726 -0.012045 0.050999999
0.003635 -0.011136 0.050999999
-0.0027280001 -0.015682001 0.050999999
-0.001819 -0.014773 0.050999999
-0.00091 -0.013864 0.050999999
-1e-06 -0.012955 0.050999999
0.00090799999 -0.012045 0.050999999
0.001817 -0.011136 0.050999999
0.002726 -0.010227 0.050999999
-0.0045460002 -0.015682001 0.050999999
-0.003637 -0.014773 0.050999999
-0.0027280001 -0.013864 0.050999999
-0.001819 -0.012955 0.050999999
-0.00091 -0.012045 0.050999999
-1e-06 -0.011136 0.050999999
0.00090799999 -0.010227 0.050999999
0.001817 -0.0093179997 0.050999999
-0.0063649998 -0.015682001 0.050999999
-0.0054560001 -0.014773 0.050999999
-0.0045460002 -0.013864 0.050999999
-0.003637 -0.012955 0.050999999
-0.0027280001 -0.012045 0.050999999
-0.001819 -0.011136 0.050999999
-0.00091 -0.010227 0.050999999
-1e-06 -0.0093179997 0.050999999
0.00090799999 -0.008409 0.050999999
-0.0081829997 -0.015682001 0.050999999
-0.007274 -0.014773 0.050999999
-0.0063649998 -0.013864 0.050999999
-0.0054560001 -0.012955 0.050999999
-0.0045460002 -0.012045 0.050999999
-0.003637 -0.011136 0.050999999
-0.0027280001 -0.010227 0.050999999
-0.001819 -0.0093179997 0.050999999
-0.00091 -0.008409 0.050999999
-1e-06 -0.0074999998 0.050999999
0.0090899998 -0.016590999 0.050999999
0.0099989995 -0.0175 0.046455
0.0099989995 -0.0175 0.050999999
0.0081810001 -0.015682001 0.050999999
0.0090899998 -0.016590999 0.046455
0.007272 -0.014773 0.050999999
0.0081810001 -0.015682001 0.046455
0.0063629998 -0.013864 0.050999999
0.007272 -0.014773 0.046455
0.0054540001 -0.012955 0.050999999
0.0063629998 -0.013864 0.046455
0.0045440001 -0.012045 0.050999999
0.0054540001 -0.012955 0.046455
0.003635 -0.011136 0.050999999
0.0045440001 -0.012045 0.046455
0.002726 -0.010227 0.050999999
0.003635 -0.011136 0.046455
0.001817 -0.0093179997 0.050999999
0.002726 -0.010227 0.046455
0.001817 -0.0093179997 0.046455
0.0099989995 -0.0175 0.041909002
0.0090899998 -0.016590999 0.041909002
0.0099989995 -0.0175 0.037363999
0.0081810001 -0.015682001 0.041909002
0.0090899998 -0.016590999 0.037363999
0.0099989995 -0.0175 0.032818001
0.007272 -0.014773 0.041909002
0.0081810001 -0.015682001 0.037363999
0.0090899998 -0.016590999 0.032818001
0.0099989995 -0.0175 0.028272999
0.0063629998 -0.013864 0.041909002
0.007272 -0.014773 0.037363999
0.0081810001 -0.015682001 0.032818001
0.0090899998 -0.016590999 0.028272999
0.0099989995 -0.0175 0.023727
0.0054540001 -0.012955 0.041909002
0.0063629998 -0.013864 0.037363999
0.007272 -0.014773 0.032818001
0.0081810001 -0.015682001 0.028272999
0.0090899998 -0.016590999 0.023727
0.0099989995 -0.0175 0.019182
0.0045440001 -0.012045 0.041909002
0.0054540001 -0.012955 0.037363999
0.0063629998 -0.013864 0.032818001
0.007272 -0.014773 0.028272999
0.0081810001 -0.015682001 0.023727
0.0090899998 -0.016590999 0.019182
0.0099989995 -0.0175 0.014636
0.003635 -0.011136 0.041909002
0.0045440001 -0.012045 0.037363999
0.0054540001 -0.012955 0.032818001
0.0063629998 -0.013864 0.028272999
0.007272 -0.014773 0.023727
0.0081810001 -0.015682001 0.019182
0.0090899998 -0.016590999 0.014636
0.0099989995 -0.0175 0.010091
0.002726 -0.010227 0.041909002
0.003635 -0.011136 0.037363999
0.0045440001 -0.012045 0.032818001
0.0054540001 -0.012955 0.028272999
0.0063629998 -0.013864 0.023727
0.007272 -0.014773 0.019182
0.0081810001 -0.015682001 0.014636
0.0090899998 -0.016590999 0.010091
0.0099989995 -0.0175 0.0055450001
0.001817 -0.0093179997 0.041909002
0.002726 -0.010227 0.037363999
0.003635 -0.011136 0.032818001
0.0045440001 -0.012045 0.028272999
0.0054540001 -0.012955 0.023727
0.0063629998 -0.013864 0.019182
0.007272 -0.014773 0.014636
0.0081810001 -0.015682001 0.010091
0.0090899998 -0.016590999 0.0055450001
0.0099989995 -0.0175 0.001
-1e-06 -0.0074999998 0.046455
-1e-06 -0.0074999998 0.041909002
0.00090799999 -0.008409 0.041909002
-1e-06 -0.0074999998 0.037363999
0.00090799999 -0.008409 0.037363999
-1e-06 -0.0074999998 0.032818001
0.00090799999 -0.008409 0.032818001
-1e-06 -0.0074999998 0.028272999
0.00090799999 -0.008409 0.028272999
-1e-06 -0.0074999998 0.023727
0.00090799999 -0.008409 0.023727
-1e-06 -0.0074999998 0.019182
0.00090799999 -0.008409 0.019182
-1e-06 -0.0074999998 0.014636
0.00090799999 -0.008409 0.014636
-1e-06 -0.0074999998 0.010091
0.00090799999 -0.008409 0.010091
0.00090799999 -0.008409 0.0055450001
0.001817 -0.0093179997 0.037363999
0.001817 -0.0093179997 0.032818001
0.002726 -0.010227 0.032818001
0.001817 -0.0093179997 0.028272999
0.002726 -0.010227 0.028272999
0.003635 -0.011136 0.028272999
0.001817 -0.0093179997 0.023727
0.002726 -0.010227 0.023727
0.003635 -0.011136 0.023727
0.0045440001 -0.012045 0.023727
0.001817 -0.0093179997 0.019182
0.002726 -0.010227 0.019182
0.003635 -0.011136 0.019182
0.0045440001 -0.012045 0.019182
0.0054540001 -0.012955 0.019182
0.001817 -0.0093179997 0.014636
0.002726 -0.010227 0.014636
0.003635 -0.011136 0.014636
0.0045440001 -0.012045 0.014636
0.0054540001 -0.012955 0.014636
0.0063629998 -0.013864 0.014636
0.001817 -0.0093179997 0.010091
0.002726 -0.010227 0.010091
0.003635 -0.011136 0.010091
0.0045440001 -0.012045 0.010091
0.0054540001 -0.012955 0.010091
0.0063629998 -0.013864 0.010091
0.007272 -0.014773 0.010091
0.001817 -0.0093179997 0.0055450001
0.002726 -0.010227 0.0055450001
0.003635 -0.011136 0.0055450001
0.0045440001 -0.012045 0.0055450001
0.0054540001 -0.012955 0.0055450001
0.0063629998 -0.013864 0.0055450001
0.007272 -0.014773 0.0055450001
0.0081810001 -0.015682001 0.0055450001
0.001817 -0.0093179997 0.001
0.002726 -0.010227 0.001
0.003635 -0.011136 0.001
0.0045440001 -0.012045 0.001
0.0054540001 -0.012955 0.001
0.0063629998 -0.013864 0.001
0.007272 -0.014773 0.001
0.0081810001 -0.015682001 0.001
0.0090899998 -0.016590999 0.001
-0.00091 -0.008409 0.050999999
-1e-06 -0.0074999998 0.046455
-1e-06 -0.0074999998 0.050999999
-0.001819 -0.0093179997 0.050999999
-0.00091 -0.008409 0.046455
-0.0027280001 -0.010227 0.050999999
-0.001819 -0.0093179997 0.046455
-0.003637 -0.011136 0.050999999
-0.0027280001 -0.010227 0.046455
-0.0045460002 -0.012045 0.050999999
-0.003637 -0.011136 0.046455
-0.0054560001 -0.012955 0.050999999
-0.0045460002 -0.012045 0.046455
-0.0063649998 -0.013864 0.050999999
-0.0054560001 -0.012955 0.046455
-0.007274 -0.014773 0.050999999
-0.0063649998 -0.013864 0.046455
-0.0081829997 -0.015682001 0.050999999
-0.007274 -0.014773 0.046455
-0.0081829997 -0.015682001 0.046455
-1e-06 -0.0074999998 0.041909002
-0.00091 -0.008409 0.041909002
-1e-06 -0.0074999998 0.037363999
-0.001819 -0.0093179997 0.041909002
-0.00091 -0.008409 0.037363999
-1e-06 -0.0074999998 0.032818001
-0.0027280001 -0.010227 0.041909002
-0.001819 -0.0093179997 0.037363999
-0.00091 -0.008409 0.032818001
-1e-06 -0.0074999998 0.028272999
-0.003637 -0.011136 0.041909002
-0.0027280001 -0.010227 0.037363999
-0.001819 -0.0093179997 0.032818001
-0.00091 -0.008409 0.028272999
-1e-06 -0.0074999998 0.023727
-0.0045460002 -0.012045 0.041909002
-0.003637 -0.011136 0.037363999
-0.0027280001 -0.010227 0.032818001
-0.001819 -0.0093179997 0.028272999
-0.00091 -0.008409 0.023727
-1e-06 -0.0074999998 0.019182
-0.0054560001 -0.012955 0.041909002
-0.0045460002 -0.012045 0.037363999
-0.003637 -0.011136 0.032818001
-0.0027280001 -0.010227 0.028272999
-0.001819 -0.0093179997 0.023727
-0.00091 -0.008409 0.019182
-1e-06 -0.0074999998 0.014636
-0.0063649998 -0.013864 0.041909002
-0.0054560001 -0.012955 0.037363999
-0.0045460002 -0.012045 0.032818001
-0.003637 -0.011136 0.028272999
-0.0027280001 -0.010227 0.023727
-0.001819 -0.0093179997 0.019182
-0.00091 -0.008409 0.014636
-1e-06 -0.0074999998 0.010091
-0.007274 -0.014773 0.041909002
-0.0063649998 -0.013864 0.037363999
-0.0054560001 -0.012955 0.032818001
-0.0045460002 -0.012045 0.028272999
-0.003637 -0.011136 0.023727
-0.0027280001 -0.010227 0.019182
-0.001819 -0.0093179997 0.014636
-0.00091 -0.008409 0.010091
-1e-06 -0.0074999998 0.0055450001
-0.0081829997 -0.015682001 0.041909002
-0.007274 -0.014773 0.037363999
-0.0063649998 -0.013864 0.032818001
-0.0054560001 -0.012955 0.028272999
-0.0045460002 -0.012045 0.023727
-0.003637 -0.011136 0.019182
-0.0027280001 -0.010227 0.014636
-0.001819 -0.0093179997 0.010091
-0.00091 -0.008409 0.0055450001
-1e-06 -0.0074999998 0.001
-0.010001 -0.0175 0.046455
-0.010001 -0.0175 0.041909002
-0.0090920003 -0.016590999 0.041909002
-0.010001 -0.0175 0.037363999
-0.0090920003 -0.016590999 0.037363999
-0.010001 -0.0175 0.032818001
-0.0090920003 -0.016590999 0.032818001
-0.010001 -0.0175 0.028272999
-0.0090920003 -0.016590999 0.028272999
-0.010001 -0.0175 0.023727
-0.0090920003 -0.016590999 0.023727
-0.010001 -0.0175 0.019182
-0.0090920003 -0.016590999 0.019182
-0.010001 -0.0175 0.014636
-0.0090920003 -0.016590999 0.014636
-0.010001 -0.0175 0.010091
-0.0090920003 -0.016590999 0.010091
-0.0090920003 -0.016590999 0.0055450001
-0.0081829997 -0.015682001 0.037363999
-0.0081829997 -0.015682001 0.032818001
-0.007274 -0.014773 0.032818001
-0.0081829997 -0.015682001 0.028272999
-0.007274 -0.014773 0.028272999
-0.0063649998 -0.013864 0.028272999
-0.0081829997 -0.015682001 0.023727
-0.007274 -0.014773 0.023727
-0.0063649998 -0.013864 0.023727
-0.0054560001 -0.012955 0.023727
-0.0081829997 -0.015682001 0.019182
-0.007274 -0.014773 0.019182
-0.0063649998 -0.013864 0.019182
-0.0054560001 -0.012955 0.019182
-0.0045460002 -0.012045 0.019182
-0.0081829997 -0.015682001 0.014636
-0.007274 -0.014773 0.014636
-0.0063649998 -0.013864 0.014636
-0.0054560001 -0.012955 0.014636
-0.0045460002 -0.012045 0.014636
-0.003637 -0.011136 0.014636
-0.0081829997 -0.015682001 0.010091
-0.007274 -0.014773 0.010091
-0.0063649998 -0.013864 0.010091
-0.0054560001 -0.012955 0.010091
-0.0045460002 -0.012045 0.010091
-0.003637 -0.011136 0.010091
-0.0027280001 -0.010227 0.010091
-0.0081829997 -0.015682001 0.0055450001
-0.007274 -0.014773 0.0055450001
-0.0063649998 -0.013864 0.0055450001
-0.0054560001 -0.012955 0.0055450001
-0.0045460002 -0.012045 0.0055450001
-0.003637 -0.011136 0.0055450001
-0.0027280001 -0.010227 0.0055450001
-0.001819 -0.0093179997 0.0055450001
-0.0081829997 -0.015682001 0.001
-0.007274 -0.014773 0.001
-0.0063649998 -0.013864 0.001
-0.0054560001 -0.012955 0.001
-0.0045460002 -0.012045 0.001
-0.003637 -0.011136 0.001
-0.0027280001 -0.010227 0.001
-0.001819 -0.0093179997 0.001
-0.00091 -0.008409 0.001
0.064544 0.0175 0.001
